# 3D point list with one line of data per point:
#   POINT3D_ID, X, Y, Z, R, G, B, ERROR, TRACK[] as (IMAGE_ID, POINT2D_IDX)
# Number of points: 348, mean track length: 11.5932
311 -2.85236 2.10089 6.60795 51 51 51 0.943689 78 642 96 668 95 658 108 682 93 573 84 644 91 631 92 579 54 644 40 625 7 661 114 654 20 649 94 568 17 647 33 646 98 705 97 611 99 676 100 606 103 749 106 743 104 667 107 934 109 755 110 811 102 675 101 619 112 588 111 479 113 481
1804 -6.06062 -0.251341 3.20154 36 34 39 1.68505 62 1233 96 1163 54 1151 97 1109 99 1076 100 945 108 1213 106 1252 107 1328 110 1198 103 1266 40 1176 98 1202 109 1145
8231 0.849633 -1.02572 8.29322 51 51 59 1.31753 22 356 34 603 31 438
3521 -3.71749 -1.09927 6.26611 94 97 102 0.960987 20 178 112 156
9948 -2.60927 2.13775 6.31027 108 111 100 0.565754 39 556 42 395 44 425 37 300 38 559 41 357
1805 -6.09528 -0.25968 3.26795 36 34 39 0.783055 62 1234 96 1164 98 1203 54 1152 97 1110 99 1077 100 946 103 1267 40 1177
3522 -5.79328 -0.960102 6.04017 70 80 71 1.62231 107 258 112 158 110 210 113 189 5 47 1 185 2 105
184 -0.618133 2.18667 5.96006 70 72 80 1.16928 78 254 96 123 93 200 114 108 17 117 33 252 105 125 98 126 103 156 106 329 107 360
13167 5.90797 -10.2197 26.3745 0 0 0 0.150325 26 203 105 562
5015 -4.72432 -3.78374 22.6483 155 161 163 1.73224 9 152 10 148 12 128 3 152 8 174 13 126
11442 -0.26075 0.305665 2.75576 0 0 0 0.48462 42 68 45 212
14789 0.760375 -2.33114 23.9596 194 200 196 0.610947 67 248 70 501 71 675 75 246 74 211 76 265
1806 -5.5782 0.922421 5.9517 53 56 53 1.65436 114 296 95 311 92 178 33 316 97 181 103 251 106 281 107 298 116 48 54 306 105 322 93 245
14660 6.78776 -1.94626 10.6027 47 51 57 1.50468 68 257 70 490 71 827 72 577 73 529 75 456 76 487 80 625 86 632 85 932 83 901 82 921 88 644 81 866 87 828 79 656 89 791 90 809 77 478
3524 -0.690112 0.0122215 8.44675 104 115 109 0.0452179 104 445 112 232
9951 2.83675 1.48436 4.45967 172 175 164 0.98137 42 483 45 680 44 529 41 351
315 -3.8132 2.02081 6.46633 50 51 48 1.00109 78 778 108 678 96 672 95 664 95 767 84 650 91 489 93 302 92 689 95 862 62 687 40 633 7 365 7 667 7 782 114 504 115 663 20 652 94 424 94 667 33 649 98 560 98 809 100 398 103 862 106 739 104 664 104 775 110 700 102 580 102 780 101 618 112 577 113 477
186 2.55992 -10.3781 27.9502 187 190 183 1.64492 108 164 96 153 93 121 91 136 92 135 98 162 97 132 100 98 103 185 104 194 107 230 101 108 113 97 116 95 117 89 118 118 119 75 1 87 2 68 3 82 102 142 95 142 99 120 94 138 17 157 109 159 111 122 112 129 38 137 41 94 39 139 110 184
13169 7.59192 -13.5132 36.2041 209 213 212 1.92386 60 224 68 347 69 556 59 314 61 379 65 191 70 626
5017 -2.46785 1.96326 6.7936 80 77 73 1.05474 4 273 5 237 6 256 8 188 9 162 10 129 12 110 14 143 16 194
11444 2.88129 1.49705 6.12707 88 104 94 1.26507 51 127 53 128 56 137 57 163 61 267
316 -3.86315 2.0297 6.39567 138 139 121 0.550601 108 538 96 673 91 493 62 692 54 648 40 640 7 673 115 668 20 511 99 580 107 937 109 653 110 815 111 574 113 411
187 4.32824 -10.1186 27.088 184 189 182 1.5092 108 171 96 156 95 147 93 125 91 139 92 139 94 141 98 165 97 135 100 101 106 222 107 233 109 162 102 145 101 111 112 132 111 125 113 101 116 98 117 92 118 122 119 79 1 95 2 71 3 85 103 188 104 197 41 97 17 160 38 141 4 136 9 98 39 142 110 188
13170 10.0488 -8.20908 21.2107 176 182 180 1.6391 59 311 60 225 63 313 64 233 65 192 89 782 16 270 90 800 61 376 88 826
5018 -0.545706 2.07729 6.80323 84 84 77 0.247605 5 243 8 195
14663 6.34901 0.584162 6.00302 38 53 51 0.484019 69 468 71 706 72 752 73 557 75 483 76 528 80 857 86 674 85 987 82 802 88 692 81 906 87 700 79 540 89 844 90 682 77 643
3526 -5.34881 1.99015 7.8124 149 139 103 1.07509 99 172 112 245 113 146
9953 -5.50523 0.133691 7.75403 79 90 77 0.720799 35 574 37 587 44 570 36 660 42 527 48 532
317 -3.86241 2.03082 6.3996 138 139 121 0.539543 108 539 96 674 91 492 62 693 54 649 40 641 7 672 115 669 20 512 107 938 109 654 110 814 111 575
14664 3.06293 1.16511 6.86573 26 37 33 0.465551 69 607 70 543 72 625 73 567 86 877 85 1005 83 963 82 982 81 927 87 901 79 710 89 859 90 710
318 -1.54991 2.24903 6.39331 143 142 116 0.72103 78 650 96 678 95 669 84 510 91 494 62 530 54 508 114 661 98 567
189 10.7185 -10.2 24.9924 176 181 174 1.42419 96 160 95 152 84 162 112 137 113 106 117 96 118 127 108 175 111 129 13 69 17 163 91 148 93 130 98 169 102 149 103 192 104 200 106 226 107 237 92 143 94 144
13172 2.3 -0.774701 8.54846 182 189 190 1.58823 63 335 64 255 65 209 66 231 67 252 68 272 69 318 70 263 72 33 74 289 75 253 76 267 79 225 77 281
14794 3.03903 1.23001 6.63523 32 53 44 0.593065 69 386 70 422 71 591 72 493 75 285 80 552 86 537 88 547 81 569 87 566 79 434 90 531
1811 -4.3998 1.99534 5.92764 46 47 58 1.76051 96 696 93 709 95 533 91 774 84 789 78 796 92 469 114 676 115 687 115 921 78 894 95 873 84 904 93 811 114 891 20 778 94 790 105 555 98 578 97 340 97 738 95 374 108 412 99 302 99 452 108 286 100 271 107 366 109 670 110 575 102 136 101 297 112 507 111 489 113 310 24 205
1682 -2.73634 2.20432 6.13085 50 56 59 0.516542 84 795 91 661 114 682 115 808 94 594 17 763
14665 6.13237 0.967916 5.71885 109 102 78 0.366316 68 382 72 766 73 570 67 347 69 608 71 875 75 499 74 414 76 666 80 883 82 1136 86 1041 83 1113 85 1149 88 901 81 1090 87 914 79 830 89 867 90 874 77 660
16511 1.07759 -0.452987 7.70539 0 0 0 1.57951 73 795 86 660 72 974
3528 7.58324 -9.91211 25.5414 176 181 175 0.834314 112 278 111 282 113 246 116 199 117 197 118 267 119 182 1 219 2 172 3 177 17 391
190 11.0012 -10.2016 24.8066 179 184 178 1.48776 110 192 112 138 111 131 113 107 119 85 4 140 117 98 2 76 118 128 3 88 6 110 9 101 10 74 11 44 108 177 109 166 116 102 1 99 5 116 8 98 84 164 93 131 96 161 101 114 102 151 103 193 104 201 106 228 107 238 12 59 13 70 97 139 98 171 100 105 95 153 17 164 99 127 91 149 92 145 94 146
13173 2.29846 -0.791057 8.54926 182 189 190 0.516339 64 256 65 210 63 334 66 232
1812 4.25265 -10.6818 28.094 189 191 186 1.9403 96 2 98 2 103 2 104 3 101 4 113 5 117 2 118 2 44 0 45 1 37 1 42 2 94 5 36 0 73 0 2 2 111 9 116 1 59 0 79 0 112 7 72 0
8239 3.00075 1.3484 5.07244 21 26 30 1.26617 34 645 38 814 36 756 37 695 35 667 43 828 39 817 42 671 46 803 45 846 44 716 41 613 32 522 47 589 37 799 41 655 42 713 31 520
14666 4.57624 1.1551 6.40298 51 77 68 0.474275 69 611 70 664 71 881 72 773 73 575 74 313 76 427 80 889 86 890 85 1020 83 975 88 908 81 939 87 751 79 724 90 882 77 410
320 -1.81064 2.21853 6.37038 118 115 96 0.556848 78 652 96 680 95 670 92 583 115 670 98 717
191 11.0208 -9.64535 22.7365 179 184 179 1.76302 3 89 118 129 4 141 6 111 9 102 12 60 1 100 2 77 5 117 8 99 10 75 11 45 13 71 20 164 110 193 112 139 113 108 117 99 119 86 108 178 109 167 111 132 116 103 107 239 106 229 7 160 103 194 104 202
13174 2.86979 1.07944 6.8393 104 102 86 1.35412 64 338 65 215 66 183 67 264 68 291 70 539 72 618 71 719 73 426 80 690 61 312 76 313 86 689 85 801 83 783 82 428 88 712 81 557 79 549 89 687 90 702 77 301
321 -2.39031 2.17475 6.44792 87 88 78 0.657251 78 506 96 684 95 523 93 451 84 515 91 497 92 452 62 536 54 650 40 497 7 519 114 507 115 518 20 515 94 429 17 515 33 497 105 534 98 715 97 619 99 584 100 405
13175 -2.47423 2.01803 6.34851 34 35 39 0.705608 58 558 64 280 59 361 65 229 66 254 67 362 68 400 69 627 72 779 71 889 75 388 76 559 86 713 85 826 88 735 87 739 79 719 89 708
3531 -5.61329 -1.38647 7.4994 55 63 52 0.626869 107 539 108 443 109 390 110 446 112 304 111 297 113 185 117 174 118 223
322 -2.15084 2.20486 6.425 110 111 107 1.09496 78 508 96 685 95 526 93 453 84 656 91 639 92 454 62 694 54 651 40 498 7 675 114 508 115 520 20 655 94 431 17 516 33 498 105 536 98 721 97 621 99 589 100 527 108 695 103 763 106 605 104 682 107 823 109 673 110 718 102 591 101 546 112 395 111 496
3532 1.13899 -1.01928 8.08776 170 177 171 0.495742 106 637 112 310 103 648 6 388
9959 0.806609 -0.226329 8.21727 0 0 0 1.6529 2 591 4 735 5 708 6 735 3 610 1 626 119 623 117 680 101 894 113 773 116 705 98 1076 20 1017 97 990 107 1219 108 1093 109 976 111 834 96 995 99 902 112 879 97 948 93 907 92 898 40 917 54 888 78 1016 116 612 104 1004 110 1031 7 831 33 819 62 970 84 924 91 903 112 816 115 862 8 587 9 545 100 846
323 -2.15004 2.20482 6.42722 110 111 107 1.03964 78 509 96 686 95 525 93 454 84 657 91 640 92 455 62 695 54 652 40 499 7 676 114 509 115 521 20 656 94 432 17 517 33 499 105 537 98 722 97 620 99 590 100 528 103 764 106 606 108 696 104 681 109 672 110 717 102 590 101 545 111 497
194 -5.5147 -1.32964 7.17108 62 68 64 1.37742 78 186 108 442 96 171 93 141 84 40 91 24 98 195 99 223 100 198 103 485 107 540 109 389 110 447 102 344 101 214 112 305 111 296 113 186 107 58
13177 -2.18813 2.1073 5.51158 60 62 59 0.859594 63 388 65 249 68 430
3533 -4.90803 -0.9941 8.10864 109 116 109 0.618911 107 552 112 313 116 217
324 -4.67889 1.9651 6.00947 139 139 126 1.43716 108 683 96 689 92 461 62 699 94 579 17 663 98 726 99 447 100 407 109 657 110 704 102 455 101 544 112 498 111 370 113 303 116 257 9 203 10 211 25 305 24 331 19 177 14 178 23 244 16 250 8 252 18 174 5 254
16517 4.72062 1.28351 6.96968 90 92 54 0.27816 71 736 86 722 82 838 88 744 81 771 89 718
3534 0.931842 0.395133 8.26779 163 173 164 1.65791 112 328 5 293 6 404 96 440
9961 -5.83357 0.60367 7.08377 52 59 54 1.84789 4 240 14 208 29 319 30 368 36 457 44 575 6 510 8 513 9 465 10 431 5 574 15 330 12 242 43 469 45 511
325 -2.27551 2.22668 6.38302 44 46 52 0.47225 78 660 93 586 84 660 91 643 92 591 62 697 54 656 40 646 7 680 114 667 115 675 20 661 17 661 33 655 105 674 96 692 97 626
6752 -8.01181 -3.72889 8.78665 86 84 72 1.56094 3 25 5 23 23 46
3535 -5.55652 0.953992 8.23466 65 64 58 1.97645 104 457 109 440 112 331 102 385
9962 -0.141138 1.79888 5.87655 66 68 64 1.24544 38 442 42 310 37 299 44 336 43 527 46 303
326 -2.16915 2.25786 6.23163 141 140 121 0.456244 78 518 96 699 95 535 93 466 84 673 91 504 92 467 62 543 54 523 40 511 7 529 114 517 115 532 20 526 94 440 17 528 33 510 105 552 97 632
3536 1.19691 1.36893 7.72179 128 126 113 1.54383 104 459 107 425 108 481 110 239 112 332 108 336 109 309 117 385 118 392 109 443 116 136
9963 -0.180286 -1.34638 8.15155 52 56 65 1.12123 108 199 96 28 78 192 93 147 95 39 84 46 91 263 95 410 62 32 40 35 7 180 114 32 115 196 17 181 33 188 98 35 92 26 97 22 103 218 103 489 100 116 106 250 110 206 102 252 112 215 111 212 111 301 118 152 118 277 1 182 1 235 5 137 6 48 8 125 8 216 9 226 105 292 102 349 4 379 11 167
327 -2.0831 2.25855 6.20064 147 156 128 0.675647 78 668 96 702 84 669 91 650 62 705 54 522 114 672 115 683 97 634
5029 0.364657 -0.973194 18.4546 151 163 162 0.851848 2 192 4 236 8 227
1820 2.55171 -5.39077 13.8399 184 187 181 1.41937 115 287 98 303 99 214
1691 -2.87969 0.427008 8.00741 171 177 176 0.932481 40 826 62 893 84 857 114 832 115 868 95 910 20 850 94 730 33 828 105 830 97 792 100 662 103 916 109 924 110 971 102 830
14674 7.04879 -1.84316 8.03949 54 59 63 1.29371 68 458 69 684 70 630 71 953 73 652 75 558 86 811 85 927 83 895 82 1182 75 648 88 1076 71 1036 87 997 79 778 89 933 90 924
3537 -0.164936 1.64958 5.83094 122 127 120 0.872475 100 145 101 53 112 346 116 304 117 304
9964 -1.73304 0.707372 8.61538 98 103 96 1.46823 34 634 38 864 35 658 36 748 37 740 45 833 42 661 46 740 44 649 23 502 29 589 41 603 32 458 47 531 49 601 48 620 31 455 50 451 53 516 56 553 52 381 71 1144
5033 -2.4554 1.937 6.82597 111 109 98 0.282146 4 269 5 235 8 246
11460 2.93783 -2.6927 24.68 174 180 180 0.823541 51 163 53 151 55 137 56 158 57 136 58 229 59 182 61 229 63 207 65 128 60 144 64 159 67 191
1824 -2.874 1.76272 7.84919 136 132 104 1.07638 78 573 95 724 92 641 7 464 115 343 95 317 84 308 54 311 40 296 7 330 114 300 20 219 17 718 98 347 98 500 97 183 99 252 99 507 103 541 104 238 103 394 102 86 112 344
14678 2.96349 1.0739 7.24268 108 104 93 1.62999 69 602 70 655 71 991 72 898 73 696 75 368 83 951 82 970 88 1021 81 1070 81 733 87 1055 90 997
3541 -4.39158 2.00178 6.08732 158 158 146 1.7953 84 252 112 388
5034 -0.76549 2.05838 7.00965 102 103 96 1.5662 5 234 8 247 9 200 16 337
1825 -2.74521 1.89367 7.52801 102 99 92 1.38244 78 325 95 325 62 342 114 307 54 314 92 283 7 334 20 323 94 281 17 459 33 329 105 332 99 258 103 265 98 256 104 121 107 624 110 374
8252 -1.75101 0.77188 8.05546 55 53 58 1.67389 27 625 29 706 30 742 34 752 38 940 36 882 37 820 43 876 46 862 47 635 31 590 50 596 56 652 72 1142 74 765 76 926 85 1401 82 1374 87 1317 79 1108 63 734
5035 -0.208696 2.15687 6.56829 100 102 90 0.507739 5 423 6 365 8 254
11462 2.78701 -1.70967 24.9424 187 196 195 0.525098 56 161 59 191 61 177 63 210 60 110 64 121 65 88 66 137 67 195 68 205 69 322 72 287 53 155
1826 -2.86128 -0.367304 7.91924 54 54 61 1.28284 78 1009 108 959 96 991 95 896 93 902 84 922 91 902 92 817 54 975 40 1000 7 1011 114 988 115 948 78 841 93 746 62 873 114 816 20 1010 94 903 17 905 33 997 105 819 105 979 98 1031 97 863 99 731 100 808 103 1087 106 1078 104 1002 107 1162 110 1028 102 894 101 759 112 814 111 776 118 709 119 573 109 798 5 667 4 697 6 699 12 483 14 419 15 372 16 584 19 429 21 499 32 504 31 504 60 530
8253 -5.26687 1.74784 8.28012 32 32 34 1.1422 28 773 29 708 30 714 34 753 38 918 36 862 37 796 35 766 43 857 39 913 46 839 45 911 42 728 44 746 41 651 32 560 47 615 49 694 48 701 31 592 51 667 50 545 53 603 55 619 56 627 57 620 58 793 52 470
14680 4.35018 1.23566 5.98171 33 49 39 0.249402 69 749 70 794 71 1019 72 929 73 728
1827 -2.86128 -0.367304 7.91924 56 55 62 1.28284 78 1008 108 958 96 990 95 895 93 901 84 921 91 901 92 816 54 976 40 1001 7 1010 114 989 115 947 78 842 93 747 62 874 114 817 20 1009 94 904 17 904 33 996 105 820 105 980 98 1030 97 862 99 732 100 807 103 1088 106 1077 104 1001 107 1161 110 1027 102 893 101 758 112 813 111 775 118 708 119 574 109 797 5 666 4 696 6 698 12 484 14 418 15 373 16 585 19 428 21 500 32 503 31 503 60 531
8254 2.66446 1.55465 7.06584 102 105 89 1.56341 28 771 29 710 30 748 34 755 27 629 38 944 36 885 37 824 35 796 43 883 39 931 46 865 45 934 42 729 44 771 41 670 32 591 47 639 49 716 48 722 31 594 51 685 50 567 52 492 53 625
1698 -3.63022 1.75681 7.09659 157 157 130 1.12779 7 1164 40 1171 54 1144 62 1225 84 1171 114 1141 94 1070 17 1123 33 1152 98 1197 100 960 62 1205 94 1049 102 1062 84 1152
14681 4.4292 1.24534 5.92695 41 57 47 0.623588 69 654 70 696 71 924 72 822 73 732 75 631 76 694 80 940 86 1073 83 1145 82 1170 88 949 81 986 87 978 79 862 89 921 77 682
335 -5.92487 -0.108463 8.50124 76 87 81 0.349319 78 715 96 740 95 713 93 624 91 708 62 757 54 693 20 725
206 -0.594894 2.21694 6.14259 70 72 67 0.852682 78 248 96 247 84 237 62 253 54 120 94 106 33 246 97 111 107 189 110 300 111 101
13189 6.77422 -2.35194 9.62997 136 144 146 0.973485 63 410 64 309 65 270 67 405 68 252 69 562 70 628 72 716 71 825 73 396 75 328 76 373 80 287 85 502 82 736 86 627 88 292 86 431 81 470 87 292 79 330 89 624 90 620
1828 -2.84207 2.0092 7.07577 57 55 52 0.612755 78 475 108 516 96 494 84 482 91 465 92 419 62 502 54 487 40 466 7 498 114 479 95 342 92 301 115 355 20 339 94 402 17 491 33 341 33 474 105 502 98 544 97 456 99 417 100 379 103 572 106 566 104 504 107 640 109 489 102 424 112 362 111 352 113 287 118 316 1 265 4 272 5 331 6 352
1699 -2.52597 2.18808 6.35307 52 54 49 0.636128 95 676 96 691 93 585 84 659 7 681 114 511 54 516 78 512 92 460 40 504 7 522 115 526 20 519 94 578 17 522 33 654 105 546 98 574 97 625
14682 4.46391 1.384 6.04497 61 76 68 0.405769 69 769 70 813 71 943 72 843 73 748 75 550 74 547
3545 0.1775 1.77726 6.35758 70 69 82 1.00323 107 432 112 445 108 80 111 422 113 449 116 395 117 390
1829 -2.72445 0.431398 7.95516 173 181 177 1.17419 84 726 92 630 7 739 114 712 84 859 93 760 62 896 54 806 115 869 20 730 94 733 105 833 98 869 97 668 103 919 104 726 104 942 102 627 101 687 25 522 87 688 90 668 42 532 37 601
594 -5.1974 1.86045 8.21117 65 64 63 0.823968 78 735 95 728 93 647 84 732 91 722 92 646 62 774 40 712 115 754 20 591 40 437 17 719 33 725 105 605 106 676
13577 0.677707 0.216485 8.12829 148 155 157 1.3076 34 775 36 903 35 811 37 845 38 961 43 904 39 952 46 886 45 956 42 749 44 792 41 692 32 609 47 662 49 736 48 746 51 713 50 589 55 667 53 649 56 676 57 677 52 512 58 850 60 679 63 795 66 604 67 750 59 784 68 780 69 1001 70 1054 72 1190 71 1269 73 996 75 888 74 789 76 954 61 880 65 605 86 1323 85 1423 83 1410 82 1430 81 1360 64 634 79 1135 87 1363 89 1297 77 944 90 1257 28 793 29 729 30 765 31 612
7151 -2.42449 -0.777173 7.80129 163 167 166 0.0779019 4 391 25 339
595 -1.00973 1.98881 7.31169 130 136 126 0.469405 78 739 95 734 93 652 91 726 40 570 7 616 114 607 98 773 99 641 103 824 106 937 101 587
13578 0.664832 -0.258545 8.10995 45 45 44 1.58668 65 599 66 599 60 673 61 875 63 790 57 671 58 846 53 640 55 659 56 669 59 780 64 628 67 746 51 706 52 507 68 776 72 1186 69 997 70 1021 72 1164 73 965 73 992 71 1241 75 858 76 949 76 918 80 1316 80 1294 82 1402 83 1372 85 1393 86 1291 88 1294 88 1317 81 1337 50 582 87 1336 89 1270 89 1290 79 1101 90 1251 77 910 77 936
7152 2.90361 1.33787 6.10554 99 112 102 0.610507 22 183 24 392 25 364 21 254 27 296 29 335 38 513 37 418 45 531 41 320 32 250 31 260
597 -3.00814 1.94649 7.12837 109 114 95 0.280665 78 747 95 740 54 718 40 725 7 760 115 766 20 743 17 729 33 739 105 738 100 686 102 759 111 656
3943 -2.02323 1.77639 6.63337 94 99 93 0.596169 111 169 118 253 110 378
10370 0.384826 1.66777 7.52406 114 109 89 1.61352 49 285 45 537 72 494
734 -5.41235 2.10097 6.99594 167 155 108 1.26294 108 525 93 445 106 575 112 372 1 205 5 329 12 145 19 57
13588 4.50345 -10.1997 27.277 174 179 175 1.84519 36 155 37 136 43 167 63 134 34 113 35 124 32 59 58 152 59 109 42 118 44 99 45 156 60 80 61 148 84 158
735 -2.74994 2.15233 6.54691 88 89 81 0.702008 78 504 93 448 84 512 96 675 95 666 91 637 62 532 54 511 7 517 114 662 115 515 20 513 94 427 17 656 33 495 105 530 98 712 97 480 99 582 100 524 101 536
13589 2.85551 1.52763 6.07567 82 96 88 1.563 53 130 56 139 57 64 58 204 59 154 61 205 51 185 55 203 56 180 57 164 60 167
3946 -6.77796 -3.6267 8.97294 41 41 42 1.61 116 271 117 263 118 272 119 251 1 228 2 179 3 185 4 374 5 266 6 375 8 265 9 219 10 224 11 162 12 223 13 185 16 211 14 192 15 190 113 245 18 238
10373 -2.95011 2.04011 5.19517 93 100 80 1.6799 53 173 55 286 56 232 57 213 59 491 58 442 60 371 51 263 61 201 52 196 63 366
737 -3.6416 2.89039 9.13304 139 140 119 0.677681 108 546 93 450
13591 4.39413 1.1783 6.41353 67 76 70 0.630836 61 252 63 224 51 170 56 168 64 197 66 188 67 271 53 195 55 188 56 217
609 -5.80165 0.471971 4.77802 151 156 149 1.56877 78 856 95 828 93 847 91 827 62 901 40 834 7 946 114 721 114 924 7 745 115 966 20 857 94 738 17 713 17 828 33 938 105 840 107 1103 110 977 106 929 102 743
13592 4.13868 1.15471 6.49245 55 77 67 1.81108 53 127 51 227 57 203 61 416 60 204 64 346 65 306 66 325 68 501 69 735 70 773 73 573 76 667 58 195 90 1014 77 533 47 36
610 -2.69498 1.39306 7.12567 156 158 145 0.510844 78 732 95 833 93 642 92 640 62 769 7 750 17 717 98 881
13593 3.43872 1.2978 6.50256 32 37 40 1.43628 53 526 55 464 50 273 51 382 52 308
3949 1.55667 1.93171 7.60699 128 113 79 2.72696 118 297 1 249 112 240 6 418 113 207 3 277 111 236
13594 2.17702 -0.173518 9.18369 184 188 186 1.1211 34 449 35 482 37 581 38 702 43 677 39 705 42 600 41 458 47 171 49 331 48 345
3951 -6.38708 -3.59999 8.83764 45 46 46 1.54455 118 360 3 249 10 223 14 191 116 346 19 197
742 -2.3974 2.24988 6.29618 87 92 87 0.684024 78 517 96 537 93 464 95 376 84 530 91 342 92 466 62 545 54 362 7 373 114 516 115 530 20 369 94 442 17 371 33 512 98 412
7169 0.743269 -1.15309 8.04822 176 182 182 0.877748 76 720 70 835 71 1047 72 957 58 615 80 1082 82 1262 88 1152 89 1052 90 1054
3952 -5.95649 0.35766 8.43413 95 102 94 1.71124 107 592 118 388 108 330 109 428 109 306 1 321 2 270 3 357 119 366 4 405 5 459 6 408 8 369
7170 -5.51068 -0.489378 7.90287 36 37 41 0.779821 18 388 19 309 21 460 25 507 26 382
7171 1.5174 0.330633 8.77713 167 173 170 0.77334 18 397 25 514 30 540 26 391 36 663 39 722 46 649
745 -5.38295 -1.40739 7.4393 37 42 45 1.93975 108 576 93 488 98 611 103 641 106 628 104 567 107 538 110 445 102 492
16941 0.345436 -0.970226 7.99414 159 167 165 1.51403 45 808 86 1164 83 1252 82 1266 81 1220 37 560 43 660 44 551 67 521 69 790 70 843 72 963 71 1054 73 779 75 667 76 731 74 566 80 1092 88 1089 39 680 87 1208 79 903 89 1061 90 1060 58 696 61 649
3958 -4.895 -0.591309 8.10283 100 107 100 0.614176 116 378 117 373 118 473 5 447
10385 2.54101 1.5561 5.92741 53 72 61 0.769315 44 405 45 544 49 376 48 475
749 -0.686216 -0.439166 8.2501 197 199 196 0.490356 78 553 95 569 96 578 93 504 84 565 91 549 92 507 62 588 54 560 40 544 7 580 114 568 115 576 20 572 94 492 17 571 33 565 105 582 98 621 97 530 99 623 108 723 100 554 103 661 106 647 104 586 107 848 109 701 110 745 102 617 101 569 112 526 111 517
7176 2.73952 1.51032 4.78947 28 44 38 1.34329 23 453 24 597 25 542 28 607 27 464 29 600 30 635 26 424
3962 1.29717 -1.15985 7.74601 50 53 58 1.08329 107 958 112 612 118 541 119 420 3 392
10389 4.1636 1.19643 6.49471 145 152 145 1.10168 49 415 48 444 51 377 50 267 53 332 55 352 56 382 57 354 58 518 59 455 52 230 61 688 63 588 64 457 65 411 66 427 67 569 73 718 74 602
16947 3.10595 1.22493 8.61883 101 108 64 1.5061 71 379 81 381 79 124
3964 -5.93837 -1.04484 8.33432 103 114 100 1.90399 116 461 118 553 2 417
10391 -4.56797 1.88974 7.7313 128 131 118 0.921459 37 617 49 422 35 594 39 741 41 477 48 454
7182 -0.466741 1.53293 5.47117 126 129 120 1.87378 23 474 25 560 27 537 30 645
16948 5.28373 -5.75686 15.1364 177 181 178 1.72248 43 283 88 419 85 490 83 497 82 503 81 456 86 416 87 433
3965 -5.79184 -1.01089 8.23288 53 59 55 1.45349 113 601 118 554 116 533 119 433 1 455 2 418 3 401
10392 4.03065 1.42577 5.814 52 77 73 0.898116 49 425 48 458 50 278 53 350 55 370 56 404 58 670 59 598 57 384 61 713 63 614
7183 -0.15611 1.55338 5.48267 116 118 112 1.29654 23 477 25 563 28 688 27 488
16955 2.92974 1.41146 6.29552 43 66 53 1.30439 59 276 61 344 58 339 63 287 64 219 67 290 68 325 69 657 70 698 72 819 71 922 75 415 74 337 76 449 86 757 85 874 82 877 73 485 73 617 85 1060 79 606 77 432 80 755 81 803 90 768
3972 0.159125 1.6321 6.23626 151 158 150 2.11209 119 584 1 594 2 610 1 645 3 591 4 752 8 563 6 714 118 669 5 679 113 699 116 628
3974 -1.34538 2.07319 7.09239 80 84 83 1.20238 113 560 116 497 117 499 118 679 119 479 1 413 2 367 3 368 4 519 5 480 6 530 8 394 9 343
765 -5.65879 -1.54963 4.96083 86 89 86 1.58363 96 715 93 601 40 527 100 544 102 605
3983 -0.227975 2.01346 6.52249 86 87 81 2.0592 117 738 1 714 2 683 118 842 116 724
10410 -0.000733011 1.56628 5.74103 116 119 113 1.06968 47 476 49 555 46 806 48 568 50 394 51 522
774 -5.69522 0.404032 5.74755 125 136 128 1.82485 96 744 93 632 84 435 91 283 62 608 33 304
3985 -0.731305 1.96318 6.65461 82 85 78 0.991484 116 784 117 737 118 864 119 727 1 737 2 706
10412 -3.48284 2.0997 5.85286 61 66 60 0.844652 55 378 57 375 58 544 59 477 60 361 61 559
776 -5.64529 0.726182 5.59235 110 117 109 1.46204 92 514 84 581 91 417 54 450 62 208 78 211 115 594 40 558 114 595 7 749 20 585 94 507 17 588 33 583 105 445
777 -5.36405 1.85859 8.0795 150 145 115 2.22698 108 756 93 649 84 734 78 737 91 569 92 649 62 775 54 710 40 717 7 611 114 602 94 511 17 595 105 457 97 680 99 639 100 567 106 806 104 734 107 873 102 518 101 469 112 545 111 528 117 388 118 491 119 376
3988 -4.52335 -0.922426 8.03395 167 171 170 1.36618 113 874 116 801 117 776 118 880 2 720 1 753 119 744 3 697 4 862 5 835 6 855 8 710 9 657 10 618 11 500 12 637 13 512 14 560 15 520 16 738 21 632 18 653 24 790 19 558 23 653 22 521 25 739 28 819 27 675 29 754 30 787 26 615 34 797 37 873 35 834 32 635 31 635
10415 4.23852 1.13409 6.5511 57 78 73 0.815318 49 604 48 623 51 585 50 455 53 520 55 544 56 558 57 593 58 768 59 705 52 386 61 808 63 714 60 602 64 567 65 536
779 -3.91395 2.01577 6.43636 52 46 46 1.21962 95 770 96 786 93 692 84 653 91 762 92 792 91 866 54 748 54 845 40 635 62 689 114 754 114 879 115 790 17 653 17 871 33 875 105 666 105 764 105 878 98 807 97 613 97 720 97 831
3989 0.85309 -0.950262 17.8518 169 175 173 1.19241 116 35 118 170 112 71
780 -2.66584 2.17208 6.37091 53 50 55 0.626761 95 777 96 797 93 703 84 781 78 786 91 769 92 702 62 819 54 753 40 756 7 788 114 760 115 798 20 772 94 674 17 752 33 774 105 772 98 822 97 733 99 688 100 618 101 637
3991 -1.07347 2.17841 6.57489 94 100 90 0.0539988 117 332 118 430 119 336
10418 -3.15393 2.10413 6.27984 62 63 58 0.576974 43 789 46 766 49 627
782 -2.08388 2.25406 6.18615 150 155 132 0.960367 96 701 93 710 84 668 78 667 91 649 92 710 62 704 54 521 40 650 114 671 115 682 20 667 94 585 17 667 33 779 20 777 78 793 105 777 97 633
7209 -3.30628 1.83189 7.293 101 100 89 1.5765 22 329 24 603 21 417 19 336 23 460 25 546 27 467 28 606 29 540 30 565 26 427 34 557 35 599 36 688 37 619 38 733 39 744 43 695 46 670 44 587 41 478 32 409 31 411
3996 -4.9686 -1.3872 7.97043 31 31 35 1.656 101 125 111 211 115 187 99 24 103 216 118 226 1 128
10423 4.10082 1.32824 6.06789 35 42 42 0.706804 49 660 48 671 51 670 53 606 55 624 56 635 57 631 58 803 59 734 52 472 61 833 63 746 60 628 64 591
4003 -4.90494 -0.251039 8.15277 98 107 101 1.71405 106 652 110 622 107 717 109 707 112 534 117 375 103 909 109 809 110 860 112 645 104 834 111 626 116 381 9 234 4 400 8 287 22 165
7221 -6.15131 -3.27723 7.50597 0 0 0 0.754543 14 69 23 27
4006 -5.84574 0.394243 4.62848 39 38 43 2.15471 100 823 104 1020 106 1097 112 836 116 623 97 1001 106 1149 104 1077 107 1239 109 1048 110 1101 112 891 111 849 113 748 101 859 110 1046 99 921 98 1046 95 1027
10433 -5.54607 0.622501 6.6492 97 102 94 2.19214 35 87 46 167 49 80 46 166 41 125
16992 10.3903 -11.1008 28.4932 0 0 0 0.675824 50 122 32 157
4009 0.467103 2.08703 6.37279 158 165 158 1.35604 108 987 103 939 109 937 110 989 106 1107 108 1060 109 1007 110 1060 112 849 111 803 113 710 116 637 117 619
10436 0.169666 -0.498783 8.37218 148 152 152 1.69618 22 486 10 569 11 456 12 590 14 515 13 465 9 575 2 627 3 607 4 770 5 746 6 764 8 624 15 486 18 611 19 527 21 599 23 617 24 756 102 932 103 1141 104 1051 107 1267 109 1027 110 1124 111 875 112 914 113 766 1 662 108 1138 16 703 25 704 26 578 27 640 28 783 29 721 30 757 31 604 32 601 34 767
800 -1.81578 2.26171 6.12881 153 154 140 0.588015 96 900 93 810 84 903 78 893 91 875 92 800 62 941 54 854 40 885 7 893 114 888 115 920 20 897 94 789 17 877 33 883 105 884
809 -5.5782 0.873777 6.25453 75 73 74 0.640647 95 914 96 939 93 850 94 836 97 888
812 -2.54004 2.23491 6.52642 48 45 48 0.643351 78 973 95 943 96 966 93 877 84 980 91 952 54 945 114 955 115 1006 20 970 17 954 33 968 105 947
814 -5.72185 -0.332633 7.87531 67 75 77 0.775815 78 1010 95 974 93 903 96 996 84 1012 91 991 92 894 62 1070 54 979 40 1002 7 1012 114 992 115 1035 20 1011 94 907 17 987 33 998 105 983 98 1034 97 945 99 905 100 812
815 -5.74987 0.46144 7.40659 93 103 95 1.73376 78 1072 95 989 96 1016 93 926 91 1046 92 915 62 1126 98 963 97 882
17008 8.36166 -10.1789 26.8172 241 244 242 1.09484 81 1003 37 466
4025 5.45827 -10.2527 27.4795 180 185 178 1.95381 34 124 35 138 119 91 11 53 46 134 45 169
816 -2.53989 1.65923 6.63262 100 107 99 0.932881 78 1041 93 934 84 1039 91 1020 92 924 62 1096 54 1006 40 1028 7 1037 114 1018 115 1061 20 1040 94 929 17 1008 33 1019 105 1006
4027 1.6433 1.50572 7.89812 84 80 70 2.23398 113 50 119 113 117 139 2 117 3 117 112 81 111 57
7251 -5.54005 -1.30611 7.39922 56 61 54 1.98552 28 58 36 186 42 55 41 119 18 50 51 50
4038 -0.648537 2.10669 6.65426 105 108 99 0.302427 101 173 119 173
832 -6.07213 0.515234 3.07879 36 35 40 1.40881 96 1136 84 1166 91 1138 62 1220 54 1139 40 1164 7 1161 20 1158 94 1065
704 -2.19974 1.97178 7.12725 119 122 105 0.466767 78 229 96 218 93 268 84 94 92 192 62 90 54 230 7 227 20 230 94 197 97 303 99 82 100 240 102 411 101 263
13687 -5.26187 1.74521 8.18224 50 49 48 2.15999 78 1125 108 1160 96 1097 95 1066 93 1005 84 1118 91 1091 92 997 62 1177 54 1107 40 1120 7 1126 114 1096 115 1153 20 1116 94 1019 17 1095 33 1100 105 1088 98 1137 97 1048 99 1004 100 891 103 1206 106 1196 104 1113 107 1282 109 1095 110 1145 102 996 101 944 112 933 111 893 113 785 116 721 117 698 118 810 119 673 1 678 2 645 3 627 4 794 5 765 6 786 9 594 10 556 11 440 8 649 13 450
13689 -5.32387 1.90649 7.9762 64 60 40 1.72718 84 214 107 308 110 95 112 181 1 251 4 249 6 327 10 160 12 189 25 220 8 300
13690 3.24837 -11.086 29.0895 172 174 169 1.96031 64 11 31 7 51 10 53 10 55 14 57 8 56 6 52 12 30 12 71 11 63 11 50 10 72 9 65 8 79 11
4046 -5.72543 1.02619 4.51456 0 0 0 1.24701 54 76 97 59 84 77 62 70 119 205
13691 -5.46439 1.00714 8.03362 119 120 106 1.50853 14 461 19 474 16 688 21 581 24 742 23 600 22 470 25 659 28 769 27 627 29 681 30 746 26 539 38 914 36 856 35 795 34 731 43 880 39 910 46 835 44 742 32 558 47 610 31 563 49 689 51 661 53 598 55 613 52 465 58 761 1 677 2 644 117 696 118 808 119 671 3 583 4 793 6 784 8 602 9 593 11 439 12 576 15 467 57 585 13 449 5 764 59 698 56 622 10 517
838 -1.96828 2.19187 6.61041 96 101 97 1.53527 96 250 93 99 84 123 91 102 20 112 94 110 17 124 33 117 106 198 107 206 110 163 101 97
13692 4.42639 -10.3027 27.2053 185 187 184 1.22494 19 1 15 0 74 0 75 0
710 -2.50393 2.0654 6.71179 83 87 73 0.226089 78 251 96 246 93 290 91 217 92 207 54 249 40 235 7 251 115 265 20 252 94 214 33 250 97 109
13693 3.81245 1.32214 6.11327 29 31 35 0.935384 56 601 57 599 58 775 59 711 61 810 67 677 67 697 68 716 69 930 70 987 72 1123 71 1207 73 926 75 822 74 748 75 845 76 881 76 910 80 1247 86 1249 85 1354 83 1332 82 1356 88 1247 81 1299 87 1293 79 1053 77 870
4049 -6.37166 -3.58623 8.81886 47 55 48 1.64702 1 294 2 239 3 248 4 371 6 374 8 264 9 217 10 222 11 161 12 222 13 184 14 190 15 143 18 237 16 274 19 196 5 352 21 223 23 267 25 325 117 253 118 359 119 250 22 113 24 272
4054 -5.95779 0.128249 8.43474 90 99 88 0.492957 107 413 119 278 2 193
845 -2.62665 2.05504 6.71747 106 108 105 0.779564 96 245 93 198 92 206 54 246 40 233 7 248 114 229 20 251 33 248 105 246 98 390 99 295 100 256 110 551
13699 -3.14588 -0.777716 7.86849 165 170 166 1.64352 40 691 84 698 7 720 54 551 91 391 62 580 115 424 115 720 20 694 33 698 105 700 98 748 103 797 38 588 43 555 39 579 46 434 45 591 91 801 7 817 115 838 106 885 104 815 5 521 37 323 6 574 90 42
4056 -1.71637 1.8111 7.2638 114 122 109 0.552612 117 392 119 292
847 -2.2065 2.03323 6.84392 80 81 72 0.750425 95 347 96 233 93 281 84 105 92 304 62 365 7 238 114 222 20 245 94 204 17 347 105 352 98 278 99 424 102 208 112 192
4057 -2.85308 2.0046 7.0351 49 47 45 0.451014 116 323 119 310 117 320 2 296 3 300 8 318
13702 1.14426 -0.869152 8.24066 19 19 21 1.18938 52 529 55 684 50 604 65 624 67 764 83 1422 87 1374 77 961 89 1307 90 1292
849 -2.53306 2.07821 6.76759 76 79 70 0.961366 95 355 96 353 93 287 91 326 54 341 40 329 114 326 98 388 100 258 103 443 106 442 104 383 107 495 110 549
13703 1.89926 1.53725 8.54293 92 83 67 1.6292 24 183 25 212 30 181 44 139 32 99 13 104 14 93 9 126
4060 -3.49706 2.03012 6.43151 44 47 47 0.845681 118 527 119 330 21 212 19 181 18 360
851 -2.5902 2.22305 6.20933 49 56 49 1.23756 95 539 96 269 93 312 40 248 105 556 97 236
13705 1.87727 0.505074 8.54149 131 135 137 1.67422 27 620 18 590 53 595 56 618 21 575 24 734 23 594 34 725 36 854 35 761 37 790 43 854 41 643 31 556 49 685 58 788 59 721 63 729 66 546 67 688 70 1000 72 1139 75 840 74 740 76 904 80 1274 86 1271 85 1374 83 1354 82 1372 88 1269 81 1316 26 562 30 737 39 904 32 587 87 1315 79 1078 89 1249 90 1230 46 830 69 976 25 654
4061 -3.59391 2.01902 6.419 46 47 52 1.49811 117 426 118 431 119 334 1 213 2 169 6 272 8 198 15 134 19 286 21 285
7279 -6.7682 -3.23491 7.49107 115 105 86 1.62957 28 158 30 45 34 36 38 35 36 36 31 33 25 33 31 30 39 30 25 31
723 -5.61008 -1.45515 4.94264 46 47 50 1.04134 78 381 93 326 40 365 114 351 115 402 105 392 33 379
13706 -3.12872 -0.85999 7.91424 14 16 17 1.5997 105 797 115 833 60 453 61 654 63 549 49 490 53 409 55 522 56 453 57 438 58 626 59 629 64 425 65 379 62 738 84 826 98 841 107 967 60 308
4063 1.7741 0.511311 8.01803 123 136 133 1.5876 119 365 1 393 2 337 3 355 4 499 5 458 6 505 8 368 118 481 117 380 9 315
7281 3.24843 0.965379 7.5288 107 113 69 1.73394 22 26 28 178 44 129 39 182 43 366 46 443 42 267 47 176
13708 -3.14595 -0.777634 7.86878 165 170 166 1.64024 84 699 7 721 40 690 54 552 114 563 115 425 115 719 20 693 33 699 105 699 98 747 103 796 38 589 43 554 39 580 46 435 45 590 91 800 7 816 115 837 104 814 106 884 5 520 37 322 91 392 6 573 90 43
855 -5.58087 0.93103 6.47253 86 88 82 0.730362 78 317 93 381 17 314 62 333 33 315
726 -5.66802 -1.33164 5.64947 123 133 125 1.13411 95 396 96 398 93 340 84 393 91 250 92 348 62 292 40 264 7 168 17 171 105 278 98 605 97 518 99 472 100 431 103 783 106 770 104 701 109 688 102 484 101 434 111 505 107 832 108 706 110 731 112 514 113 429 114 257 94 158 116 362 33 179
13709 -0.164829 -1.30379 8.13164 46 49 52 1.79754 96 814 92 721 78 696 96 720 84 555 91 678 62 736 54 548 40 787 7 562 114 699 115 716 20 690 94 700 17 787 33 697 33 801 98 744 98 834 99 609 103 788 106 871 104 801 107 838 110 736 101 445 101 651 112 608 113 499 116 450 117 441 118 456 119 353 119 418 1 444 2 406 3 332 105 795 97 526 100 440 104 569 105 408 115 419 100 712 102 794 108 934 109 875 110 920 114 790 3 473 97 850 91 889 5 616 8 420 78 408 94 344 17 420 33 397 114 379
4069 -5.81326 -1.22915 8.28746 53 60 54 1.99089 117 450 118 544 119 424 1 449 2 412 3 396 4 482 4 555 6 476 8 350 116 459
7287 -1.43323 0.828475 2.20167 104 107 87 0.519054 24 261 28 204
13714 -32.6326 -17.9396 27.397 112 118 114 2.11898 58 2 52 2 59 2 61 2 60 2 51 2 63 3 64 3 65 2 50 3 69 4 67 2 68 2
4070 -5.60102 -1.05885 7.96445 69 77 70 0.621686 117 530 119 430 2 416
10497 -1.77936 0.532009 5.91754 72 76 75 0.0102469 42 154 48 137
4072 -6.04458 -0.814579 8.60042 110 118 104 1.06264 118 558 119 437 1 379 2 421 6 491
10499 3.29458 1.39384 4.49247 37 43 39 1.7654 45 253 47 39 43 129
863 -3.22808 0.176243 7.92935 51 49 53 1.66265 95 581 93 509 84 573 91 814 92 747 54 429 40 817 7 733 115 585 20 577 17 440 33 715 105 822 98 759 100 658 102 624 96 436 108 473 40 200
4074 -2.96988 2.00381 6.71437 47 43 40 1.33562 118 611 119 487 1 497 2 469 3 462 5 600 6 640 8 487 10 406 11 296 15 305 16 509 18 437 28 629 29 560 30 587
865 -4.77297 0.222033 7.9975 119 125 121 0.671149 96 585 93 511 115 445 105 589 54 571 103 667
4075 -5.56655 -1.25352 7.86966 65 75 67 1.33011 116 529 117 525 118 627 119 500 1 509 2 411 3 393 4 549 5 512 8 426
866 -2.60944 1.75652 6.98127 109 107 101 0.513266 95 604 96 612 93 528 84 594 91 573 7 753 98 512 97 431 99 257
869 -1.91999 2.29296 6.23128 153 153 127 0.444125 95 680 96 704 93 589 91 651 84 671 78 669 92 596 62 707 54 662 40 652 7 686 114 674 115 685 20 669 94 587 17 669 33 664 105 679 97 636
740 -2.65501 2.20646 6.29801 103 103 93 0.453174 95 532 96 533 93 460 92 464 91 645 78 515 84 527 62 541 54 657 40 508 7 526 114 514 115 528 20 524 94 583 17 526 33 508 105 549 98 580 97 487
13723 9.5093 -11.1718 28.8441 0 0 0 0.891368 27 8 28 10 29 9 52 10
873 -4.8979 -0.448477 8.10065 122 127 123 0.846455 95 570 96 737 93 618 84 566 91 550 92 620 7 581 114 567 115 307 20 573 94 717 33 566 100 555
744 -5.66683 -1.2056 5.78447 163 167 156 1.30661 95 553 96 562 93 486 91 534 54 395 33 389 7 405
13727 3.5907 -10.3496 27.7011 0 0 0 2.16044 19 8 15 9 21 8 114 12 22 7
4084 -0.233163 -1.66432 18.7088 199 199 197 1.59413 118 703 119 567 1 576 2 547 3 530 4 690 5 662 6 694 8 547 9 502 10 464 117 537 11 307
10511 -5.91382 0.767284 8.13794 0 0 0 1.27861 41 126 49 137 43 89 38 297
4085 -5.80197 -0.00646674 5.74747 127 133 129 2.20968 117 552 119 575 116 616 1 583
10512 3.48223 1.30608 6.41809 70 87 77 0.809454 51 233 53 261 55 256 56 278 57 261 58 334 59 343 52 176 61 428 63 477 60 254 64 364 65 320 66 336
7308 2.50778 1.60244 5.21906 71 88 78 0.392714 23 199 28 324 44 422 45 464 46 499
13735 0.766586 -3.38799 20.9933 198 200 196 1.46806 59 32 68 28 60 32 69 30 71 319
7309 -0.470429 1.47162 5.43223 102 101 96 1.30086 28 328 27 327 29 361 30 327 26 267 25 394
753 -5.74244 0.704402 7.05208 103 108 102 1.09853 78 569 95 306 93 514 96 309 84 297 54 704 33 433 84 442 105 217 97 414 99 155 101 139
13736 -4.50231 -1.00625 7.6892 71 77 77 1.25223 53 184 68 30 56 160
4092 1.55858 0.534913 8.03055 163 171 173 1.25574 117 656 118 767 119 631 1 634 2 598 3 577 4 739 5 720 6 743 116 676
10519 -2.72202 1.89854 6.90434 89 94 88 0.172719 46 471 49 292 48 302
755 -2.45537 1.92336 6.85357 86 89 82 0.825605 78 748 95 486 93 538 84 747 91 592 92 663 62 786 54 719 40 856 7 759 114 735 115 893 20 877 94 647 17 730 33 740 33 859 105 739 97 453 96 487
13738 2.33752 -1.83421 24.1051 172 177 171 1.11966 63 52 68 32 69 39 83 36 80 37 87 43 88 54 89 41
4096 -7.31687 -3.83953 9.45427 119 121 100 1.40463 119 677 1 681 2 649 3 632 4 798 5 772 6 793 118 813 117 704
4097 -5.85789 -0.172671 6.13888 88 102 87 1.32982 117 683 118 795 119 693 1 701
10524 -9.35011 -5.17146 9.44251 0 0 0 2.28687 21 222 34 343 48 332 50 245
889 -2.72173 2.22648 6.34963 147 150 133 0.760724 95 875 96 898 93 814 91 961 92 802 7 895 114 961 7 1055 115 1016 40 888 94 876 33 885 97 843 98 917
7317 -0.789255 1.88629 6.58514 106 108 98 0.470315 22 140 28 342 21 278 29 287 30 334
4101 -5.8718 -0.419478 3.73982 125 134 131 1.24026 117 778 118 882 119 746
763 -4.13026 2.08647 6.03491 141 144 128 1.38683 95 685 96 540 93 597 84 798 78 901 92 601 20 904 94 684 97 494
4102 -4.52998 0.243365 8.04839 0 0 0 0.843308 54 1168 95 1141 97 1122
10529 4.11679 1.25541 6.3121 128 135 125 1.22967 49 418 48 446 51 491 49 528 50 367 53 448 55 459 56 487 57 467 58 657 59 584 52 304 61 696 63 598 60 493 64 522 65 418 66 489 67 633 68 667 69 833 70 873 72 1085 71 1162 73 825 74 681 75 707 76 773 80 1141 86 1209 85 1249 83 1230 82 1243 88 1208 81 1261 87 1185 79 947 89 1117 90 1109 77 762
895 -2.48593 2.2314 6.33156 152 155 136 0.441703 95 953 96 972 93 884 84 987 78 980 91 959 92 870 62 1042 54 949 40 976 7 988 114 959 115 1013 20 976 94 874 17 960 33 973 105 952 98 916 97 922
13750 9.5534 -10.0395 25.2086 0 0 0 1.21307 1 98 10 71 26 57 100 104 103 191 91 147 13 68
4108 -2.33392 1.99944 6.70755 71 70 66 0.922684 1 163 2 129 3 135 4 203 5 175 8 150 9 139 11 86 118 196 119 123 10 135
17093 5.63653 -10.7502 28.4288 0 0 0 0.607971 71 474 94 238
4110 -2.37005 1.98126 6.83077 69 70 64 0.767943 118 259 119 172 4 275 5 240 6 260 8 191 10 203
10537 4.0805 1.35891 5.99499 20 28 30 0.768535 49 530 48 547 50 371 57 557 58 735 59 664 61 811 63 719 60 609 66 537
7328 3.01083 1.31776 5.83306 97 111 98 0.537037 23 295 24 393 25 366 28 399 27 234 29 338 30 387 26 242 22 182 34 386 38 516 37 420 35 408 43 494 39 511 46 459 42 351 44 392 41 322 32 252 48 368 31 263
7329 2.97394 1.3484 5.77772 50 73 64 0.956415 23 297 24 397 28 402 34 390 37 425 43 498 46 461 45 533 42 357 44 395 32 254
7330 2.9646 1.3428 5.75204 50 73 64 0.779104 23 298 24 398 28 403 34 391 37 424 43 497 45 534 42 356 44 394 32 255 47 269
4114 -1.51323 2.05347 6.59284 96 102 94 0.390171 118 419 119 321 1 351 2 381 3 379
17098 0.972857 -4.26675 22.616 0 0 0 0.725026 83 341 84 174
4115 -2.25426 -0.425991 4.30088 0 0 0 1.44481 110 37 117 371
4116 -1.07111 2.04959 6.27891 122 125 116 0.83344 118 741 119 558 1 568
7334 -2.79187 1.86979 6.61978 42 43 45 1.86793 23 393 28 430 27 329 29 360 21 429 22 338 30 325 26 269 34 178 35 105 19 346
4117 -7.94157 -3.68339 8.22923 123 103 57 1.52557 3 521 9 490 10 455 24 665 23 526 25 610 28 690 29 617 38 853 31 490 1 571 44 687 30 650 2 539 4 684 5 657 26 477 27 539 22 396
908 -1.10365 2.24689 6.28595 157 164 153 0.733991 108 408 95 360 78 256 95 112 93 296 84 240 91 333 92 314 62 259 54 253 40 331 7 254 114 329 115 369 20 349 94 218 17 358 33 353 105 365 98 395 97 216 108 281 100 401 106 593 104 396 104 539 107 364 107 508 110 570 101 403 112 506 111 373
4119 -8.53857 -3.69613 8.21376 101 80 59 1.49545 119 643 1 682 2 650 3 633 4 799 6 794 9 599 10 560 11 445 12 542 14 471 5 773 118 778
10546 1.85227 1.94518 6.79183 132 119 84 1.19888 47 595 49 669 48 681
7339 -2.71309 -0.263305 7.88024 153 159 157 0.865264 95 710 28 481 36 538 43 563 4 582 109 808 1 465
17105 8.09631 -10.8109 28.3939 0 0 0 1.92519 34 428 42 402 45 577 58 467 32 293 35 457 36 511 38 562 46 512 43 529 44 430 64 305
4122 4.69616 -10.5796 28.2655 178 183 177 1.41338 111 25 1 4 32 13 100 16
10549 -0.82373 0.0972992 7.87354 105 114 109 2.45262 41 706 47 629 48 744 56 672 61 878 56 697 69 970 59 717
4123 4.69616 -10.5796 28.2655 178 183 177 1.41338 111 24 1 5 32 14 100 17
916 -2.3222 2.02802 6.82188 104 109 105 1.09097 93 82 95 101 84 106 92 89 62 101 40 99 114 96 94 100 33 94 97 101 108 135 103 300 106 181 104 162 102 210 117 69 116 76
787 -5.5154 -0.981503 7.76669 58 58 63 1.24533 78 819 95 794 93 725 84 823 91 797 92 727 62 853 54 777 40 792 7 811 114 793 115 829 20 818 94 701 17 788 33 806 105 796 98 839 97 763 99 715
13770 2.93827 -1.70735 23.9413 165 171 171 0.341203 65 133 66 136 67 152 68 151 70 264
917 -2.21842 2.0526 6.75157 104 106 93 0.86565 96 238 84 108 62 247 54 243 104 293 99 93
7344 2.71368 1.42518 4.83426 50 60 58 1.2395 23 377 24 503 28 511 27 389 29 434 30 478 26 332 34 477 32 341 31 350
13771 3.19118 0.296974 9.50411 110 120 94 0.966559 68 158 88 68
4127 -6.67518 -3.58616 9.12034 144 147 127 1.20065 112 19 113 20 1 22 110 178 5 24 8 20
918 -2.5729 2.03595 6.79041 102 107 101 0.524891 93 88 95 105 84 110 92 93 54 115 40 105 114 103 115 125 17 246 98 116 97 104 104 169 101 91
13772 -9.98931 2.08983 19.2755 0 0 0 2.41781 48 76 61 243
920 -3.96906 2.05035 6.21042 50 50 53 0.928435 96 138 84 135 20 263 94 126 92 112
7347 0.396097 1.94176 6.71577 150 152 140 1.92498 23 323 24 437 28 532 29 459 30 335 34 505 35 538 49 469 48 592 31 370
4130 -2.75975 1.99942 7.05975 99 98 93 0.31866 113 73 1 71
921 -4.75083 1.97679 5.97355 145 138 111 1.07273 108 149 84 139 92 120 62 130 114 135 20 138 33 136 105 155 98 152 107 217 107 218 110 166
13775 -0.221851 1.92796 6.80318 100 100 93 1.05273 65 99 68 173 72 248 71 278 75 219 80 239 83 290 88 397
923 -3.59725 -0.703891 4.28299 108 111 118 0.844724 95 169 54 192
794 -3.4922 -0.608571 7.83053 176 183 176 0.899801 108 954 93 737 54 791 114 806 107 1072 109 789 112 731 111 701
17117 7.80353 -10.3102 27.1666 225 229 228 1.27027 37 464 88 958 80 957 81 1001 82 1059 86 947 83 1026 85 1079 87 992
4134 5.34349 -10.4315 27.6685 179 184 178 1.76399 108 165 1 89 35 121 46 113
10561 0.0543688 -1.19924 7.92345 32 30 33 1.62501 47 715 43 960 46 931 26 626 34 818 36 951 23 664 24 802 25 751 27 688 28 833 29 768 30 801 42 796 48 802 41 735 32 648 22 532 31 648 32 655 35 853 19 570 21 644 16 750 18 664
925 -0.724498 -1.41636 8.18114 94 104 106 0.520368 96 174 84 180 114 177 106 68 5 42
4135 5.34349 -10.4315 27.6685 179 184 178 1.76399 108 166 1 90 35 122 46 114
10562 3.50896 1.17628 5.62547 55 73 66 1.9726 36 860 37 794 38 916 39 914 43 858 45 912 46 840 42 710 44 747 47 616 49 695 48 670 44 710 47 580 50 546
926 -5.35728 0.76509 7.8377 94 93 89 1.2522 95 192 84 198 91 179 92 49 54 215 40 202 7 317 114 201 20 212 94 64 17 210 97 46 104 84 99 45 112 174 118 176
927 -2.95917 1.81649 7.66917 130 126 102 0.398335 95 320 84 212 93 254 84 310 115 345 94 279 105 328 98 250 95 203 103 400 106 399 104 345 107 438
929 -5.62965 -1.61256 4.77915 83 86 84 2.03261 95 18 84 266 20 278 94 328 100 288 95 547 109 380 108 427 110 593 115 396 112 49 107 37
930 -5.64861 -1.41984 5.03308 33 38 34 1.56869 93 329 84 267 62 413 7 389 33 541 114 541 105 275
931 -5.59266 -1.23548 6.79943 130 137 124 0.671909 78 188 96 172 84 277 91 163 92 255 62 29 54 29 40 178 114 173 20 177 7 172 94 28 17 175 33 21 97 146
13785 3.68571 -0.788545 7.85413 197 200 199 0.977133 63 167 68 201
4141 4.84896 -9.56326 25.0698 179 183 178 0.3909 114 151 29 95
10568 -4.09508 0.627427 5.35431 105 112 104 2.44368 38 85 48 138
932 -5.67684 -0.932972 5.50828 149 154 150 0.655941 93 234 84 279 92 153 54 398 17 295 98 449 99 333 100 439
13786 2.27085 -1.87219 24.0785 200 199 195 0.710647 65 132 66 37 68 203 64 37 69 317 70 40 72 29 71 34 73 200 74 28 76 39 80 36 85 339 85 513 82 375 90 301
804 -5.65492 -1.61413 4.64916 84 83 86 1.70305 95 879 96 903 93 818 91 877 84 802 92 803 98 919 97 846 108 1014 99 800 100 708 103 1070 106 972 104 983 107 1147 109 964 110 917 102 872 101 737 112 800 111 765 116 597 105 780 117 593 118 694 2 541 113 668
13787 3.40654 0.228702 8.62708 113 120 104 0.917118 68 209 69 326 85 355 86 667
934 -1.16712 1.91934 21.7444 59 65 63 0.786016 108 332 7 313
935 -5.63329 0.687577 7.15389 104 106 101 1.19873 95 305 96 307 84 294 91 178 92 272 62 204 98 490 97 45 54 66 101 343 99 365
13789 2.71069 1.47053 6.23305 79 96 86 0.910906 60 164 68 235 59 215
4149 -8.36773 -3.93543 9.13395 94 74 47 0.906027 1 114 3 99 4 154 6 135 14 72 116 113
940 -1.66142 2.14239 6.67669 98 103 97 0.941377 96 350 84 338 7 352 107 498
4150 -8.86943 -4.30714 10.1303 111 101 81 0.0508494 108 8 1 116
4151 -5.63416 -1.36235 7.52538 102 108 98 1.04528 117 125 1 125 118 224 2 104 5 139 10 151 12 173
4154 1.56409 1.45397 7.56491 84 80 71 1.76207 1 142 2 45 3 118 6 165 8 67 118 180
945 -5.69265 0.715193 6.86457 141 149 135 1.54442 96 594 84 443 91 416 54 448 98 632 99 368 97 673 106 273 104 226 101 236 20 435
950 -0.567141 2.17085 6.45007 129 137 126 0.344486 108 655 84 485 91 467 40 470 114 480 115 495 98 547 106 716 107 783 109 623 110 685 111 462
7377 -2.66418 1.60934 6.56127 104 108 107 1.29188 23 573 24 716 25 664 28 750 27 598 29 688 26 545 31 521
951 -0.5311 2.1943 6.52593 129 137 126 0.56975 108 654 84 486 107 784 109 622 110 684 111 461 119 327
822 -0.368165 2.03321 6.14616 95 101 97 1.64236 78 1080 95 1033 96 1065 93 966 84 1080 91 1053 92 954 62 1131 54 1057 40 1072 7 1076 114 1054 115 1098 98 1093 97 1012 100 862
13805 6.35829 0.321193 9.96922 48 54 50 1.13892 61 302 68 279 72 606 74 387 73 553 85 782 77 370
952 -1.21743 2.17359 5.67924 161 172 158 0.63703 96 527 84 518 62 696
4162 -7.95952 -3.85451 8.88267 95 71 44 1.26318 3 147 5 195 11 99 13 121 13 150 18 183 23 167 25 191 32 127 1 176 16 179 24 213 116 160 27 203 29 169 29 228
953 -4.68138 1.9682 6.10984 160 158 134 1.38271 108 542 84 521 7 521 20 660 94 577 17 520 103 601 112 383 111 366
7380 -3.42093 -0.972387 8.05692 135 140 134 0.772374 15 477 25 673 28 757 27 608 29 695 30 725 26 549
824 -5.80193 0.545174 4.6413 156 154 149 2.01561 96 1128 93 1000 84 1112 62 1169 98 1164 97 1075
13807 4.35606 1.18291 6.42355 57 83 70 0.810886 61 316 68 301 70 557 75 391 74 316 88 914 81 942 87 923 77 411
954 -4.29949 2.02664 6.19196 51 51 57 0.295101 96 688 84 525 105 675
955 -4.38268 1.89349 5.43004 136 137 120 1.14987 95 382 84 536 91 356 94 133
7383 -3.84506 0.312998 8.17757 130 136 133 1.42513 22 511 23 643 25 716 25 729 28 796 27 651 29 732 21 620 24 766 30 767 26 589 34 777 36 905 38 963 37 847 35 813 39 953 43 905 42 750 45 957 46 887 14 535 41 693 44 793 32 611 49 738 47 663 48 748 31 613 50 590 16 728 18 643 19 551 15 513
13810 4.31661 1.2159 5.95639 74 95 85 0.271801 67 284 68 318 69 511 70 586 72 674 71 774 73 473 75 412 74 332 86 758 85 875 80 758 82 704 80 601 85 685 88 787 81 805 87 613 79 607 89 597 90 593 77 433
957 -4.76764 -0.649996 8.03919 141 145 140 0.980512 95 421 84 564 92 504 91 687 62 584
828 -5.70639 0.888212 5.36803 147 150 143 1.29657 95 1095 96 1137 93 1035 84 1151 92 1020 54 1105 7 1122 114 1093 115 1148 20 1113 94 1017 17 1090 33 1097 105 1086 97 1081
13811 4.3018 1.24091 5.87472 66 89 73 0.547077 67 374 68 323 69 521 70 461 72 526 71 628 73 489 74 340 75 422 76 461 80 604 86 596 85 690 83 684 82 709 88 616 81 635 87 619 79 478 89 603 90 602 77 448 79 615
829 -5.54731 -1.71002 5.25908 174 174 164 1.52415 95 1099 96 1141 93 1037 84 1153 105 1113 98 1172 97 1084 99 1049 100 937 104 1154 103 1253 109 1136 102 1042 101 991 4 800 92 1022 91 1123 116 759 5 802
959 -3.94796 -0.0318294 7.85787 175 177 172 0.909251 95 433 84 571 54 424 7 200 114 417 78 564 115 581 105 711 110 222
830 -5.89138 -0.957108 3.81684 44 43 49 1.07449 96 1142 93 1038 92 1023 33 1133 98 1174 100 939 106 1242
960 -3.22416 0.442244 7.93688 169 178 173 0.257551 96 592 84 577 17 580
13814 0.890608 2.00833 7.13219 133 135 130 2.23088 60 515 61 623 65 262 68 343 69 550 74 549 76 701 80 953 83 884 87 814 79 875
